    17500.00 5200810000001-99999.990111-9999999
    56875.00 5200810000001   625.000111      91
    28893.00 5200810000001    21.910250    1319
       13.00 5200810000001     3.250250       4
     5869.50 5200810000001   195.650250      30
     6233.85 5200810000001   890.550250       7
    10190.05 5200810000001  1132.230250       9
    17695.35 5200810000001   453.730250      39
       13.55 5200810000001    13.550250       1
     1719.30 5200810000001   286.550250       6
       13.70 5200810000001    13.700250       1
      963.00 5200810000001   240.750250       4
     2493.75 5200810000001    73.350250      34
       21.00 5200810000001    21.000250       1
     1581.55 5200810000001   225.940250       7
      157.50 5200810000001    78.750250       2
      122.10 5200810000001    24.420250       5
      153.75 5200810000001    11.830250      13
       33.75 5200810000001    11.250250       3
       48.20 5200810000001    12.050250       4
     1020.00 5200810000001    25.500250      40
     1915.80 5200810000001     9.300250     206
     5388.90 5200810000001   234.300250      23
    14949.00 5200810000001    21.570270     693
    15840.00 5200810000001   396.000270      40
      170.00 5200810000001    85.000270       2
     3618.09 5200810000001    37.690272      96
      824.00 5200810000001   206.000300       4
     1100.65 5200810000001   157.240301       7
      336.00 5200810000001   112.000301       3
     1771.00 5200810000001   161.000301      11
      268.00 5200810000001    67.000301       4
      372.00 5200810000001    93.000301       4
       64.00 5200810000001    64.000301       1
       64.00 5200810000001    64.000301       1
       64.00 5200810000001    64.000301       1
      871.00 5200810000001    67.000301      13
      297.00 5200810000001    99.000301       3
      626.00 5200810000001   125.200302       5
      513.00 5200810000001    73.290305       7
     1615.00 5200810000001    95.000305      17
      123.00 5200810000001    41.000305       3
     3143.00 5200810000001    76.660306      41
     2533.00 5200810000001   316.630306       8
       83.00 5200810000001    83.000306       1
     1035.00 5200810000001   147.860306       7
      678.00 5200810000001   113.000306       6
      594.00 5200810000001    99.000306       6
      287.00 5200810000001    41.000306       7
      412.00 5200810000001   206.000306       2
      384.00 5200810000001    64.000307       6
     1430.00 5200810000001   238.330310       6
     1360.00 5200810000001   136.000320      10
     3499.00 5200810000001  1166.330350       3
      705.00 5200810000001   705.000360       1
      724.00 5200810000001   362.000402       2
     4857.00 5200810000001    64.760410      75
    10640.00 5200810000001   168.890410      63
     7124.00 5200810000001   890.500410       8
      208.00 5200810000001    52.000410       4
    13770.00 5200810000001   259.810410      53
    10728.00 5200810000001    88.660410     121
      234.00 5200810000001   234.000420       1
     1980.00 5200810000001    60.000420      33
     1924.00 5200810000001    58.300420      33
      257.00 5200810000001   257.000430       1
      308.00 5200810000001    77.000440       4
     1617.00 5200810000001    77.000440      21
      116.00 5200810000001   116.000440       1
     5536.00 5200810000001    83.880480      66
     2797.00 5200810000001  1398.500610       2
      150.80 5200810000001    50.270636       3
      204.00 5200810000001   204.000730       1
      326.00 5200810000001   326.000921       1
     3750.00 5200810000002-99999.990111-9999999
    24375.00 5200810000002   625.000111      39
    24435.40 5200810000002    41.910250     583
      295.40 5200810000002   147.700250       2
      431.60 5200810000002     5.990250      72
    17766.10 5200810000002   286.550250      62
      103.00 5200810000002     7.360250      14
      939.50 5200810000002    93.950250      10
      755.00 5200810000002    75.500250      10
      384.30 5200810000002     9.150250      42
      423.90 5200810000002     9.630250      44
      455.40 5200810000002   113.850250       4
       38.75 5200810000002    12.920250       3
      405.00 5200810000002    11.250250      36
     1218.30 5200810000002     9.300250     131
     8155.00 5200810000002    35.930270     227
     4972.83 5200810000002   138.130272      36
      734.00 5200810000002   367.000300       2
       56.00 5200810000002    56.000300       1
       46.00 5200810000002    46.000300       1
       93.00 5200810000002    93.000300       1
       67.00 5200810000002    67.000301       1
      224.00 5200810000002   112.000301       2
     5313.00 5200810000002   161.000301      33
     2278.00 5200810000002    67.000301      34
     3366.00 5200810000002    99.000301      34
