NOTICE: Use of HCUP data constitutes acceptance of the
terms and conditions of the HCUP Data Use Agreement.
    69580.00  5201010412422   710.000111      98.00
    67509.56  5201010412422    31.070250    2173.00
     6481.85  5201010412422    69.700250      93.00
     8748.70  5201010412422   729.060250      12.00
       62.20  5201010412422    10.370250       6.00
     1464.80  5201010412422     6.540250     224.00
      369.75  5201010412422     7.250250      51.00
     7107.00  5201010412422   253.820250      28.00
     1262.60  5201010412422   315.650250       4.00
      285.30  5201010412422     6.790250      42.00
       68.50  5201010412422    13.700250       5.00
     1786.00  5201010412422   223.250250       8.00
      969.30  5201010412422   484.650250       2.00
       22.50  5201010412422     7.500250       3.00
       45.85  5201010412422     6.550250       7.00
     5262.25  5201010412422    78.540250      67.00
      829.95  5201010412422   276.650250       3.00
     1181.25  5201010412422    78.750250      15.00
       78.90  5201010412422    39.450250       2.00
      104.00  5201010412422     3.850250      27.00
      673.20  5201010412422     6.600250     102.00
       81.20  5201010412422    40.600250       2.00
     1274.10  5201010412422     9.300250     137.00
    19222.00  5201010412422    32.470270     592.00
      901.45  5201010412422    25.760272      35.00
      693.00  5201010412422   138.600300       5.00
      111.00  5201010412422    37.000300       3.00
     2497.00  5201010412422   312.130300       8.00
      248.00  5201010412422    62.000300       4.00
      200.00  5201010412422    50.000300       4.00
      412.00  5201010412422   103.000300       4.00
     1394.31  5201010412422    60.620301      23.00
     9300.00  5201010412422   125.680301      74.00
     1062.00  5201010412422   177.000301       6.00
      296.00  5201010412422   148.000301       2.00
     1830.00  5201010412422   366.000301       5.00
      936.00  5201010412422   156.000301       6.00
       53.00  5201010412422    53.000301       1.00
     1050.00  5201010412422    87.500301      12.00
      303.00  5201010412422   101.000301       3.00
      215.00  5201010412422   215.000301       1.00
       50.00  5201010412422    50.000301       1.00
      119.00  5201010412422   119.000301       1.00
      167.00  5201010412422   167.000301       1.00
      141.00  5201010412422   141.000301       1.00
       63.00  5201010412422    63.000301       1.00
      127.00  5201010412422   127.000301       1.00
      141.00  5201010412422   141.000301       1.00
      116.00  5201010412422    58.000301       2.00
     2960.00  5201010412422    74.000301      40.00
    10896.00  5201010412422   227.000301      48.00
       32.00  5201010412422    32.000301       1.00
     5995.00  5201010412422   109.000301      55.00
       53.00  5201010412422    53.000301       1.00
      134.00  5201010412422   134.000301       1.00
      101.00  5201010412422   101.000301       1.00
       96.00  5201010412422    48.000301       2.00
      265.00  5201010412422   265.000301       1.00
      101.00  5201010412422   101.000301       1.00
     1540.00  5201010412422   154.000301      10.00
       90.00  5201010412422    45.000301       2.00
      525.00  5201010412422    75.000301       7.00
      246.00  5201010412422   123.000302       2.00
      333.00  5201010412422   111.000305       3.00
      714.00  5201010412422    42.000305      17.00
      396.00  5201010412422    36.000305      11.00
      418.00  5201010412422    38.000305      11.00
     5670.00  5201010412422   105.000305      54.00
       87.00  5201010412422    87.000305       1.00
     2100.00  5201010412422    70.000305      30.00
      315.00  5201010412422    45.000305       7.00
      237.00  5201010412422    79.000305       3.00
      836.00  5201010412422    55.730306      15.00
     1640.00  5201010412422   328.000306       5.00
     1157.00  5201010412422   165.290306       7.00
     1125.00  5201010412422   281.250306       4.00
      763.00  5201010412422   109.000306       7.00
      202.00  5201010412422   202.000306       1.00
      404.00  5201010412422   202.000306       2.00
     1494.00  5201010412422   373.500306       4.00
      135.00  5201010412422    45.000306       3.00
      134.00  5201010412422    67.000306       2.00
      227.00  5201010412422   227.000306       1.00
       22.00  5201010412422    11.000307       2.00
       25.00  5201010412422    25.000307       1.00
      210.00  5201010412422    70.000307       3.00
      156.00  5201010412422    39.000307       4.00
      113.00  5201010412422   113.000309       1.00
      436.00  5201010412422   145.330310       3.00
     1416.00  5201010412422   354.000320       4.00
     5544.00  5201010412422   277.200320      20.00
    58930.00  5201010412423   710.000111      83.00
    28481.13  5201010412423    13.500250    2109.00
    24525.90  5201010412423   194.650250     126.00
    81287.05  5201010412423  1028.950250      79.00
       28.65  5201010412423     7.160250       4.00
      962.90  5201010412423     6.090250     158.00
     9413.35  5201010412423   128.950250      73.00
