    43875.00 5200910000001   675.000111      65
    27972.00 5200910000001    21.650250    1292
     2112.45 5200910000001   176.040250      12
    14475.10 5200910000001   195.610250      74
        6.50 5200910000001     6.500250       1
    10646.55 5200910000001   394.320250      27
      167.20 5200910000001   167.200250       1
       39.00 5200910000001     6.500250       6
      509.50 5200910000001     7.380250      69
     2359.90 5200910000001    90.770250      26
       49.80 5200910000001     8.300250       6
      393.75 5200910000001    78.750250       5
     1274.40 5200910000001    63.720250      20
      226.50 5200910000001    75.500250       3
       60.60 5200910000001    20.200250       3
      114.75 5200910000001    12.750250       9
       22.60 5200910000001    11.300250       2
     1598.70 5200910000001    18.810250      85
        1.30 5200910000001     1.300250       1
    23651.00 5200910000001    36.840270     642
     2489.00 5200910000001   226.270270      11
      623.00 5200910000001   103.830270       6
     1512.68 5200910000001    37.820272      40
      568.00 5200910000001   113.600300       5
      245.00 5200910000001    35.000300       7
      216.00 5200910000001   216.000300       1
      177.00 5200910000001    59.000300       3
      144.00 5200910000001    48.000300       3
      294.00 5200910000001    98.000300       3
     1377.00 5200910000001    68.850301      20
     3304.00 5200910000001   122.370301      27
      676.00 5200910000001   169.000301       4
      149.00 5200910000001   149.000301       1
       96.00 5200910000001    96.000301       1
      820.00 5200910000001   205.000301       4
       96.00 5200910000001    48.000301       2
      339.00 5200910000001   113.000301       3
      318.00 5200910000001   159.000301       2
      121.00 5200910000001   121.000301       1
      120.00 5200910000001    60.000301       2
      198.00 5200910000001    99.000301       2
     1890.00 5200910000001    72.690301      26
     2912.00 5200910000001   107.850301      27
       50.00 5200910000001    50.000301       1
     1023.00 5200910000001    93.000305      11
      272.00 5200910000001    38.860305       7
      360.00 5200910000001    40.000305       9
     3400.00 5200910000001   100.000305      34
      804.00 5200910000001    67.000305      12
      675.00 5200910000001    75.000305       9
      537.00 5200910000001    89.500306       6
     1248.00 5200910000001   249.600306       5
      363.00 5200910000001   181.500306       2
      476.00 5200910000001   119.000306       4
      416.00 5200910000001   104.000306       4
       86.00 5200910000001    43.000306       2
      216.00 5200910000001   216.000306       1
       87.00 5200910000001    17.400307       5
       72.00 5200910000001    24.000307       3
      201.00 5200910000001    67.000307       3
     1748.00 5200910000001   582.670320       3
     2510.00 5200910000001   251.000320      10
     2937.30 5200910000001   367.160341       8
     1575.00 5200910000001  1575.000350       1
     2934.00 5200910000001   733.500360       4
     1210.00 5200910000001   403.330370       3
     1788.00 5200910000001   357.600390       5
      238.00 5200910000001   238.000402       1
     2245.00 5200910000001    56.130410      40
    67430.00 5200910000001  1142.880410      59
      110.00 5200910000001   110.000410       1
     2948.00 5200910000001   268.000410      11
    12061.00 5200910000001    74.910410     161
      492.00 5200910000001   246.000420       2
      143.00 5200910000001   143.000420       1
     1682.00 5200910000001    67.280420      25
     2035.00 5200910000001    84.790420      24
      246.00 5200910000001   246.000430       1
       55.00 5200910000001    55.000430       1
      162.00 5200910000001    81.000440       2
      167.00 5200910000001   167.000440       1
       94.00 5200910000001    31.330636       3
      428.00 5200910000001   428.000730       1
     3850.00 5200910000001  1925.000750       2
     1628.00 5200910000001   407.000921       4
    46575.00 5200910000002   675.000111      69
    28077.90 5200910000002    23.110250    1215
     2739.10 5200910000002   195.650250      14
      750.50 5200910000002     9.500250      79
      227.35 5200910000002   227.350250       1
       23.00 5200910000002     5.750250       4
     6019.65 5200910000002   122.850250      49
     1507.00 5200910000002    13.700250     110
    15169.45 5200910000002   129.650250     117
     1828.75 5200910000002    96.250250      19
      320.00 5200910000002    12.800250      25
     2520.00 5200910000002    78.750250      32
       73.95 5200910000002    73.950250       1
     1118.25 5200910000002    12.290250      91
     1306.80 5200910000002     6.600250     198
