NOTICE: Use of HCUP data constitutes acceptance of the
terms and conditions of the HCUP Data Use Agreement.
    30545.00 52011100410221   745.000111      41.00
    55070.79 52011100410221    39.140250    1407.00
      300.00 52011100410221     7.500250      40.00
       16.95 52011100410221     5.650250       3.00
      718.75 52011100410221     5.750250     125.00
      519.80 52011100410221   129.950250       4.00
      327.25 52011100410221   327.250250       1.00
       13.35 52011100410221     4.450250       3.00
       40.00 52011100410221    40.000250       1.00
    19325.45 52011100410221   327.550250      59.00
        4.65 52011100410221     4.650250       1.00
     8320.25 52011100410221    72.350250     115.00
      356.40 52011100410221     6.600250      54.00
      502.20 52011100410221     9.300250      54.00
        1.30 52011100410221     1.300250       1.00
       14.30 52011100410221     1.300250      11.00
    23088.00 52011100410221    41.980270     550.00
       63.00 52011100410221    63.000270       1.00
     2269.98 52011100410221    78.280272      29.00
      947.00 52011100410221   118.380300       8.00
      234.00 52011100410221    39.000300       6.00
      952.00 52011100410221   238.000300       4.00
      390.00 52011100410221    78.000300       5.00
      318.00 52011100410221    63.600300       5.00
      648.00 52011100410221   129.600300       5.00
       88.00 52011100410221    88.000301       1.00
     1560.00 52011100410221   130.000301      12.00
      372.00 52011100410221   186.000301       2.00
       78.00 52011100410221    78.000301       1.00
      278.00 52011100410221   278.000301       1.00
      106.00 52011100410221   106.000301       1.00
       47.00 52011100410221    47.000301       1.00
     1064.00 52011100410221    39.410305      27.00
     1120.00 52011100410221    41.480305      27.00
      660.00 52011100410221   110.000305       6.00
     1023.00 52011100410221    93.000305      11.00
       74.00 52011100410221    74.000305       1.00
       47.00 52011100410221    47.000305       1.00
       83.00 52011100410221    83.000305       1.00
      112.00 52011100410221    28.000306       4.00
      860.00 52011100410221   286.670306       3.00
     1612.00 52011100410221   179.110306       9.00
      912.00 52011100410221   114.000306       8.00
      235.00 52011100410221    58.750306       4.00
      714.00 52011100410221   238.000306       3.00
      287.00 52011100410221    41.000307       7.00
      275.00 52011100410221   275.000320       1.00
     2216.00 52011100410221   277.000320       8.00
     2095.00 52011100410221  2095.000360       1.00
     1599.00 52011100410221   799.500370       2.00
     1692.00 52011100410221   338.400390       5.00
      402.00 52011100410221   402.000402       1.00
     5079.00 52011100410221    78.140410      65.00
    31293.00 52011100410221  1251.720410      25.00
      200.00 52011100410221    40.000410       5.00
     2668.00 52011100410221   166.750410      16.00
      122.00 52011100410221    61.000410       2.00
     3400.00 52011100410221   200.000410      17.00
     6471.00 52011100410221   106.080410      61.00
      271.00 52011100410221   271.000420       1.00
     1408.00 52011100410221    64.000420      22.00
      328.00 52011100410221    41.000420       8.00
      183.00 52011100410221    61.000420       3.00
      271.00 52011100410221   271.000430       1.00
       61.00 52011100410221    61.000430       1.00
      178.00 52011100410221    89.000440       2.00
      184.00 52011100410221   184.000440       1.00
     1526.00 52011100410221  1526.000710       1.00
     4266.00 52011100410221  2133.000750       2.00
      440.00 52011100410221   440.000921       1.00
    24585.00 52011100410222   745.000111      33.00
    18822.35 52011100410222    30.810250     611.00
     1265.55 52011100410222    97.350250      13.00
      465.05 52011100410222     6.550250      71.00
      423.45 52011100410222    47.050250       9.00
      385.15 52011100410222   192.580250       2.00
       70.40 52011100410222     3.520250      20.00
      315.00 52011100410222     7.500250      42.00
     1862.35 52011100410222   109.550250      17.00
      630.00 52011100410222    78.750250       8.00
      114.15 52011100410222    38.050250       3.00
      185.25 52011100410222    61.750250       3.00
      679.80 52011100410222     6.600250     103.00
      967.20 52011100410222     9.300250     104.00
        3.90 52011100410222     1.300250       3.00
    16960.00 52011100410222    41.070270     413.00
     1512.00 52011100410222   378.000270       4.00
       98.00 52011100410222    98.000270       1.00
      849.03 52011100410222    49.940272      17.00
      308.00 52011100410222   154.000300       2.00
     1428.00 52011100410222   285.600300       5.00
      195.00 52011100410222    65.000300       3.00
      159.00 52011100410222    53.000300       3.00
      324.00 52011100410222   108.000300       3.00
       62.00 52011100410222    62.000301       1.00
     4550.00 52011100410222   137.880301      33.00
      372.00 52011100410222   186.000301       2.00
      310.00 52011100410222   155.000301       2.00
