NOTICE: Use of HCUP data constitutes acceptance of the
terms and conditions of the HCUP Data Use Agreement.
    50830.00 52012100000001   782.000111      65.00
    95732.07 52012100000001    99.720250     960.00
      767.20 52012100000001    42.620250      18.00
     1495.10 52012100000001    16.990250      88.00
      322.50 52012100000001     7.870250      41.00
     2042.30 52012100000001   113.460250      18.00
      852.45 52012100000001     5.800250     147.00
      301.40 52012100000001    13.700250      22.00
    10764.55 52012100000001   262.550250      41.00
    14885.95 52012100000001   595.440250      25.00
      907.50 52012100000001    14.180250      64.00
      358.05 52012100000001     4.650250      77.00
    12926.90 52012100000001   109.550250     118.00
      441.55 52012100000001     9.010250      49.00
      325.35 52012100000001   325.350250       1.00
     2204.40 52012100000001    91.850250      24.00
     6206.85 52012100000001    74.780250      83.00
     2865.45 52012100000001    57.310250      50.00
     1551.00 52012100000001     6.600250     235.00
       18.60 52012100000001     9.300250       2.00
    30493.00 52012100000001    28.880270    1056.00
    27940.00 52012100000001   481.720270      58.00
     2412.00 52012100000001    34.960272      69.00
      175.00 52012100000001    87.500300       2.00
      272.00 52012100000001    68.000300       4.00
      224.00 52012100000001    56.000300       4.00
      452.00 52012100000001   113.000300       4.00
     1410.00 52012100000001   470.000300       3.00
      599.00 52012100000001    59.900301      10.00
      548.00 52012100000001   137.000301       4.00
    10725.00 52012100000001   202.360301      53.00
      652.00 52012100000001   652.000301       1.00
      163.00 52012100000001   163.000301       1.00
      860.00 52012100000001   172.000301       5.00
      156.00 52012100000001    78.000301       2.00
       78.00 52012100000001    78.000301       1.00
      118.00 52012100000001    59.000301       2.00
      155.00 52012100000001   155.000301       1.00
       78.00 52012100000001    78.000301       1.00
     4510.00 52012100000001    82.000301      55.00
      750.00 52012100000001   250.000301       3.00
      156.00 52012100000001    78.000301       2.00
     6600.00 52012100000001   120.000301      55.00
     2220.00 52012100000001   148.000301      15.00
      576.00 52012100000001    96.000301       6.00
     1122.00 52012100000001   374.000302       3.00
     1978.00 52012100000001    48.240305      41.00
      120.00 52012100000001    60.000305       2.00
      126.00 52012100000001    63.000305       2.00
     5684.00 52012100000001   101.500305      56.00
     4368.00 52012100000001    79.420305      55.00
     4872.00 52012100000001    88.580305      55.00
     3077.00 52012100000001   307.700306      10.00
     2595.00 52012100000001   324.380306       8.00
      414.00 52012100000001   138.000306       3.00
      960.00 52012100000001   120.000306       8.00
     3024.00 52012100000001   252.000306      12.00
      549.00 52012100000001   183.000306       3.00
      392.00 52012100000001    78.400306       5.00
      500.00 52012100000001   250.000306       2.00
      387.00 52012100000001    43.000307       9.00
      869.00 52012100000001   289.670320       3.00
     2910.00 52012100000001   291.000320      10.00
      268.00 52012100000001   268.000320       1.00
    15016.00 52012100000001  3754.000350       4.00
     1915.00 52012100000001  1915.000350       1.00
     2401.00 52012100000001  2401.000350       1.00
      635.00 52012100000001   635.000360       1.00
      477.00 52012100000001   159.000370       3.00
     2298.00 52012100000001   459.600390       5.00
      865.00 52012100000001   432.500402       2.00
     1516.00 52012100000001     7.360410     206.00
    10048.00 52012100000001  1256.000410       8.00
      378.00 52012100000001    42.000410       9.00
    11904.00 52012100000001   198.400410      60.00
      192.00 52012100000001    64.000410       3.00
    17050.00 52012100000001   310.000410      55.00
    24821.00 52012100000001   178.570410     139.00
      285.00 52012100000001   285.000420       1.00
     2881.00 52012100000001    84.740420      34.00
       64.00 52012100000001    64.000420       1.00
      129.00 52012100000001    43.000420       3.00
     1152.00 52012100000001    82.290420      14.00
      279.00 52012100000001    93.000440       3.00
      141.00 52012100000001   141.000440       1.00
      386.00 52012100000001   193.000440       2.00
     1653.00 52012100000001  1653.000480       1.00
     6579.00 52012100000001  1315.800750       5.00
     1415.00 52012100000001   707.500921       2.00
    35972.00 52012100000002   782.000111      46.00
    22117.91 52012100000002    38.600250     573.00
      346.85 52012100000002    49.550250       7.00
      315.00 52012100000002     7.500250      42.00
     1608.80 52012100000002   100.550250      16.00
      687.75 52012100000002     6.550250     105.00
     2306.25 52012100000002    51.250250      45.00
       65.00 52012100000002     3.250250      20.00
     4179.00 52012100000002   208.950250      20.00
