    36000.00 5200710000001   600.000111      60
    17334.80 5200710000001    28.840250     601
    25413.75 5200710000001     6.180250    4110
    16433.90 5200710000001   483.350250      34
      121.95 5200710000001    13.550250       9
       41.10 5200710000001    13.700250       3
       18.00 5200710000001     9.000250       2
      178.00 5200710000001     2.510250      71
    12835.00 5200710000001    75.500250     170
     1391.25 5200710000001    39.750250      35
       23.00 5200710000001     5.750250       4
     3774.60 5200710000001    16.200250     233
    19083.00 5200710000001    35.080270     544
     1615.00 5200710000001    80.750270      20
      608.79 5200710000001    20.290272      30
     2600.00 5200710000001   200.000300      13
      545.00 5200710000001   109.000301       5
      624.00 5200710000001   156.000301       4
       76.00 5200710000001    76.000301       1
       62.00 5200710000001    62.000301       1
       62.00 5200710000001    62.000301       1
      124.00 5200710000001    62.000301       2
       65.00 5200710000001    65.000301       1
      192.00 5200710000001    96.000301       2
       47.00 5200710000001    47.000301       1
        3.06 5200710000001     3.060301       1
       62.00 5200710000001    31.000305       2
       33.00 5200710000001    33.000305       1
      644.00 5200710000001    92.000305       7
      460.57 5200710000001    65.800306       7
      110.00 5200710000001   110.000306       1
       96.00 5200710000001    96.000306       1
       80.00 5200710000001    40.000306       2
      200.00 5200710000001   200.000306       1
       62.00 5200710000001    62.000307       1
      487.08 5200710000001   121.770320       4
     3122.90 5200710000001  1040.970350       3
      955.24 5200710000001   477.620360       2
      196.50 5200710000001   196.500370       1
      462.00 5200710000001     7.830410      59
     8931.00 5200710000001   146.410410      61
    67050.00 5200710000001  1117.500410      60
       50.00 5200710000001    50.000410       1
     2232.00 5200710000001   248.000410       9
     6991.00 5200710000001    72.820410      96
      227.00 5200710000001   227.000420       1
     1802.00 5200710000001    66.740420      27
      400.00 5200710000001    57.140420       7
      113.00 5200710000001   113.000440       1
       42.80 5200710000001    21.400636       2
      198.00 5200710000001   198.000730       1
     1500.00 5200710000001  1500.000750       1
    64200.00 5200710000002   600.000111     107
    29475.75 5200710000002    31.830250     926
     2138.20 5200710000002     0.010250  358375
      843.00 5200710000002    42.150250      20
     6775.00 5200710000002   188.190250      36
     3583.75 5200710000002   143.350250      25
    18958.60 5200710000002   430.880250      44
     1377.50 5200710000002     7.250250     190
      373.95 5200710000002   124.650250       3
     1463.40 5200710000002    13.550250     108
     1332.00 5200710000002   166.500250       8
    10972.35 5200710000002   296.550250      37
     7731.15 5200710000002   220.890250      35
       97.00 5200710000002     6.930250      14
     3840.30 5200710000002   112.950250      34
     5061.75 5200710000002   297.750250      17
    16157.00 5200710000002    75.500250     214
     2489.40 5200710000002    73.220250      34
      237.75 5200710000002    47.550250       5
      759.00 5200710000002     5.750250     132
       75.50 5200710000002    75.500250       1
     1120.60 5200710000002    56.030250      20
       34.05 5200710000002    11.350250       3
     2653.20 5200710000002     6.600250     402
     1664.70 5200710000002     9.300250     179
        2.72 5200710000002     0.090250      30
    42340.00 5200710000002    37.470270    1130
    10149.00 5200710000002   338.300270      30
     1681.60 5200710000002    19.550272      86
        7.00 5200710000002     7.000272       1
      200.00 5200710000002   200.000300       1
      101.49 5200710000002   101.490301       1
      218.00 5200710000002   109.000301       2
     2496.00 5200710000002   156.000301      16
      690.00 5200710000002   172.500301       4
      496.00 5200710000002    62.000301       8
      325.00 5200710000002    65.000301       5
      132.00 5200710000002    66.000301       2
       38.00 5200710000002    12.670305       3
     2116.00 5200710000002    92.000305      23
      101.00 5200710000002   101.000305       1
      520.00 5200710000002    40.000305      13
       69.00 5200710000002    69.000305       1
     1510.77 5200710000002    65.690306      23
      290.00 5200710000002   290.000306       1
     1210.00 5200710000002   110.000306      11
     1056.00 5200710000002    96.000306      11
      160.00 5200710000002    40.000306       4
