     1600.00   3120111000000010120       2
      255.00   3120111000000010250       2
        7.00   3120111000000010270       2
       14.00   3120111000000010271       2
      886.00   3120111000000010272       2
       57.00   3120111000000010300       2
      189.00   3120111000000010301       2
      170.00   3120111000000010305       2
       44.00   3120111000000010307       2
      202.00   3120111000000010320       2
     1600.00   3120111000000020120       2
      552.00   3120111000000020250       2
      140.00   3120111000000020258       2
      117.00   3120111000000020270       2
      568.00   3120111000000020271       2
       56.00   3120111000000020272       2
       38.00   3120111000000020300       2
      328.00   3120111000000020301       2
       70.00   3120111000000020305       2
      128.00   3120111000000020424       2
     3200.00   3120111000000030120       4
      384.00   3120111000000030250       4
        4.00   3120111000000030250       4
       64.00   3120111000000030250       4
        4.00   3120111000000030250       4
       38.00   3120111000000030250       4
       30.00   3120111000000030250       4
       18.00   3120111000000030250       4
      105.00   3120111000000030250       4
      100.00   3120111000000030250       4
      640.00   3120111000000030258       4
      269.00   3120111000000030270       4
       12.00   3120111000000030271       4
      253.00   3120111000000030272       4
       70.00   3120111000000030305       4
     1675.00   3120111000000030351       4
      355.00   3120111000000030450       4
      800.00   3120111000000040120       1
       12.00   3120111000000040250       1
       21.00   3120111000000040250       1
        4.00   3120111000000040250       1
      140.00   3120111000000040258       1
       17.00   3120111000000040270       1
       34.00   3120111000000040271       1
       81.00   3120111000000040272       1
       19.00   3120111000000040300       1
      250.00   3120111000000040301       1
       70.00   3120111000000040305       1
       44.00   3120111000000040307       1
      239.00   3120111000000040324       1
      464.00   3120111000000040402       1
      355.00   3120111000000040450       1
     3200.00   3120111000000050120       4
      294.00   3120111000000050250       4
      280.00   3120111000000050258       4
      154.00   3120111000000050270       4
        2.00   3120111000000050271       4
       14.00   3120111000000050272       4
       57.00   3120111000000050300       4
      828.00   3120111000000050301       4
       70.00   3120111000000050305       4
       44.00   3120111000000050307       4
      569.00   3120111000000050320       4
      425.00   3120111000000050324       4
      240.00   3120111000000050421       4
      128.00   3120111000000050424       4
      217.00   3120111000000050730       4
     2400.00   3120111000000060120       3
       24.00   3120111000000060250       3
      210.00   3120111000000060258       3
      117.00   3120111000000060270       3
       63.00   3120111000000060272       3
       44.00   3120111000000060307       3
      270.00   3120111000000060636       3
     3200.00   3120111000000070120       4
      442.00   3120111000000070250       4
        2.00   3120111000000070270       4
       66.00   3120111000000070271       4
       19.00   3120111000000070300       4
      110.00   3120111000000070301       4
       70.00   3120111000000070305       4
       44.00   3120111000000070307       4
      391.00   3120111000000070320       4
      120.00   3120111000000070421       4
      128.00   3120111000000070424       4
     4000.00   3120111000000080120       5
      918.00   3120111000000080250       5
      390.00   3120111000000080258       5
      282.00   3120111000000080270       5
     1310.00   3120111000000080271       5
       74.00   3120111000000080272       5
       57.00   3120111000000080300       5
      194.00   3120111000000080301       5
      210.00   3120111000000080305       5
      425.00   3120111000000080324       5
      800.00   3120111000000090120       1
      290.00   3120111000000090250       1
      580.00   3120111000000090258       1
      132.00   3120111000000090270       1
       12.00   3120111000000090271       1
