     5985.00   3620111000000010119       3
     1556.62   3620111000000010250       0
      230.75   3620111000000010270       0
      617.00   3620111000000010301       0
      484.00   3620111000000010305       0
      793.00   3620111000000010306       0
      305.25   3620111000000010309       0
      607.00   3620111000000010320       0
      361.00   3620111000000010410       0
     1760.00   3620111000000020121       1
      274.43   3620111000000020250       0
     4856.22   3620111000000020270       0
      667.50   3620111000000020301       0
      381.00   3620111000000020305       0
      795.25   3620111000000020309       0
    12570.00   3620111000000020360       0
     2258.25   3620111000000020370       0
      187.50   3620111000000020710       0
     5985.00   3620111000000030111       3
     4660.00   3620111000000030201       1
     1681.32   3620111000000030250       0
     4808.51   3620111000000030270       0
     5417.75   3620111000000030301       0
     1321.50   3620111000000030305       0
      540.00   3620111000000030306       0
      795.25   3620111000000030309       0
     5567.00   3620111000000030319       0
     2284.50   3620111000000030320       0
    17421.75   3620111000000030360       0
     2789.25   3620111000000030370       0
     1444.00   3620111000000030410       0
      281.25   3620111000000030710       0
     1258.50   3620111000000030730       0
     1760.00   3620111000000040121       1
     1329.05   3620111000000040250       0
     1874.60   3620111000000040270       0
      188.75   3620111000000040301       0
      474.00   3620111000000040305       0
      305.25   3620111000000040309       0
      359.50   3620111000000040319       0
    10952.75   3620111000000040360       0
     2081.25   3620111000000040370       0
      656.25   3620111000000040710       0
    24640.00   3620111000000050119      14
    13965.00   3620111000000050119       7
     2406.96   3620111000000050250       0
      100.00   3620111000000050270       0
     8656.00   3620111000000050301       0
     2766.50   3620111000000050302       0
     5441.50   3620111000000050305       0
     2524.00   3620111000000050306       0
      942.00   3620111000000050310       0
     2194.00   3620111000000050319       0
     1158.75   3620111000000050320       0
     1199.00   3620111000000050360       0
     2204.00   3620111000000050402       0
     3839.50   3620111000000050480       0
     4489.84   3620111000000050636       0
     2098.50   3620111000000050921       0
     1760.00   3620111000000060119       1
    17955.00   3620111000000060119       9
     5792.17   3620111000000060250       0
     3466.00   3620111000000060301       0
     1541.00   3620111000000060305       0
      118.50   3620111000000060306       0
      381.25   3620111000000060730       0
     3520.00   3620111000000070121       2
      525.74   3620111000000070250       0
     2289.30   3620111000000070270       0
    12905.75   3620111000000070272       0
      703.00   3620111000000070305       0
      305.25   3620111000000070309       0
      450.00   3620111000000070311       0
     2415.00   3620111000000070319       0
     3914.00   3620111000000070360       0
     1727.25   3620111000000070370       0
     7040.00   3620111000000080121       4
     6450.00   3620111000000080121       2
     1536.74   3620111000000080250       0
     2433.73   3620111000000080270       0
     1102.00   3620111000000080301       0
     1299.50   3620111000000080305       0
      795.25   3620111000000080309       0
      432.75   3620111000000080320       0
     6958.50   3620111000000080360       0
     1550.25   3620111000000080370       0
     1019.00   3620111000000080390       0
      414.75   3620111000000080424       0
      480.50   3620111000000080429       0
      291.25   3620111000000080434       0
      578.75   3620111000000080439       0
      419.50   3620111000000080730       0
     2640.00   3620111000000090171       2
       16.38   3620111000000090250       0
      484.25   3620111000000090301       0
       34.00   3620111000000090302       0
      472.50   3620111000000090306       0
      370.25   3620111000000090309       0
      496.75   3620111000000090360       0
      440.00   3620111000000090471       0
